# .PCD v0.7 - Point Cloud Data file format
VERSION 0.7
FIELDS x y z intensity normal_x normal_y normal_z curvature
SIZE 4 4 4 4 4 4 4 4
TYPE F F F F F F F F
COUNT 1 1 1 1 1 1 1 1
WIDTH 1130
HEIGHT 1
VIEWPOINT 0 0 0 1 0 0 0
POINTS 1130
DATA ascii
7.2882104 -3.3461084 -0.54501951 0 0 0 0 0
7.3665504 -3.3375695 -0.46295917 0 0 0 0 0
7.4387074 -3.3387637 -0.38655883 0 0 0 0 0
7.1241474 -3.3418043 -0.58854878 0 0 0 0 0
7.212471 -3.3401291 -0.50877339 0 0 0 0 0
7.2843885 -3.3360503 -0.42474806 0 0 0 0 0
7.3521638 -3.3408263 -0.34535217 0 0 0 0 0
7.0418987 -3.3434412 -0.5552398 0 0 0 0 0
7.1315174 -3.3367593 -0.47259098 0 0 0 0 0
7.1967812 -3.3401296 -0.38650784 0 0 0 0 0
7.2696676 -3.3341384 -0.30311903 0 0 0 0 0
6.9645891 -3.3354118 -0.52150977 0 0 0 0 0
7.0451961 -3.337992 -0.43641034 0 0 0 0 0
7.1154933 -3.3315914 -0.34630343 0 0 0 0 0
7.1756287 -3.3396261 -0.26161465 0 0 0 0 0
6.8810196 -3.3329008 -0.48717621 0 0 0 0 0
6.9548864 -3.3408754 -0.39868867 0 0 0 0 0
7.0274477 -3.3275561 -0.30634469 0 0 0 0 0
7.0904222 -3.3286905 -0.21860075 0 0 0 0 0
6.7945166 -3.3321831 -0.45326817 0 0 0 0 0
6.8697562 -3.3341544 -0.36193812 0 0 0 0 0
6.9270453 -3.3356149 -0.26654032 0 0 0 0 0
6.9926271 -3.3328393 -0.17564812 0 0 0 0 0
6.705801 -3.3282332 -0.41773009 0 0 0 0 0
6.7760072 -3.3347642 -0.32419154 0 0 0 0 0
6.8346691 -3.3302217 -0.22595127 0 0 0 0 0
6.8952856 -3.3279576 -0.1315823 0 0 0 0 0
6.6096759 -3.3297634 -0.38322482 0 0 0 0 0
6.6793938 -3.3331192 -0.28560227 0 0 0 0 0
6.7392735 -3.3245666 -0.18445736 0 0 0 0 0
6.7902174 -3.3294904 -0.087125711 0 0 0 0 0
6.5159001 -3.3264301 -0.34781274 0 0 0 0 0
6.5815449 -3.3293812 -0.24731858 0 0 0 0 0
6.6332188 -3.3271198 -0.14299837 0 0 0 0 0
6.6909032 -3.3214381 -0.042822324 0 0 0 0 0
6.4205723 -3.321938 -0.31128299 0 0 0 0 0
6.4820671 -3.3254819 -0.20788622 0 0 0 0 0
6.5312109 -3.3209229 -0.10051261 0 0 0 0 0
6.5789833 -3.322367 0.0040183631 0 0 0 0 0
6.3170204 -3.3228455 -0.27521148 0 0 0 0 0
6.3726583 -3.3278165 -0.16773267 0 0 0 0 0
6.4120445 -3.3283904 -0.056066141 0 0 0 0 0
6.471427 -3.313611 0.050462138 0 0 0 0 0
5.5052953 -3.3013899 0.13920809 0 0 0 0 0
5.5151658 -3.2888405 0.27680925 0 0 0 0 0
5.5113163 -3.2922292 0.41634682 0 0 0 0 0
5.3528781 -3.3011458 0.18764028 0 0 0 0 0
5.3532119 -3.2876883 0.3307409 0 0 0 0 0
5.3624396 -3.2739568 0.47248834 0 0 0 0 0
5.2026258 -3.2894645 0.093014888 0 0 0 0 0
5.2153196 -3.2819498 0.23707181 0 0 0 0 0
5.1961966 -3.2768698 0.38509372 0 0 0 0 0
5.1779923 -3.274817 0.53484476 0 0 0 0 0
5.0434146 -3.2867279 0.14016637 0 0 0 0 0
5.0496688 -3.27757 0.28878686 0 0 0 0 0
5.0156326 -3.2731323 0.44360566 0 0 0 0 0
4.9838276 -3.2728188 0.60042834 0 0 0 0 0
4.8828821 -3.2798436 0.18834262 0 0 0 0 0
4.8625956 -3.2814491 0.34436151 0 0 0 0 0
4.8322806 -3.2661443 0.50292939 0 0 0 0 0
4.7925611 -3.2620325 0.66540223 0 0 0 0 0
4.7140312 -3.2732522 0.23868999 0 0 0 0 0
4.6890788 -3.2683313 0.39936122 0 0 0 0 0
4.640842 -3.2564592 0.56433159 0 0 0 0 0
4.5906854 -3.2493036 0.73420835 0 0 0 0 0
4.5401111 -3.2642252 0.29021099 0 0 0 0 0
4.4964218 -3.2626562 0.45785871 0 0 0 0 0
4.4348922 -3.2485371 0.62977666 0 0 0 0 0
4.3637094 -3.2424977 0.80829114 0 0 0 0 0
4.3451548 -3.2584746 0.34543651 0 0 0 0 0
4.2873669 -3.2576287 0.5193069 0 0 0 0 0
4.2063537 -3.2427325 0.7000441 0 0 0 0 0
4.1173162 -3.2360778 0.88622934 0 0 0 0 0
4.1459441 -3.2503691 0.40126121 0 0 0 0 0
4.0718455 -3.247015 0.58298403 0 0 0 0 0
3.9701219 -3.2323003 0.77093565 0 0 0 0 0
3.8455734 -3.2324677 0.9721359 0 0 0 0 0
3.9248815 -3.2454588 0.46136469 0 0 0 0 0
3.8408182 -3.2361329 0.64900619 0 0 0 0 0
3.7033257 -3.2272868 0.84973139 0 0 0 0 0
3.5632725 -3.2219751 1.0595095 0 0 0 0 0
3.7011771 -3.2322526 0.52351737 0 0 0 0 0
3.5785749 -3.2316473 0.7221458 0 0 0 0 0
3.4195497 -3.2198505 0.93195915 0 0 0 0 0
3.2516072 -3.2119994 1.1540581 0 0 0 0 0
3.4442246 -3.2293725 0.59045714 0 0 0 0 0
3.2901495 -3.2289989 0.80019444 0 0 0 0 0
3.1154559 -3.2106643 1.0199467 0 0 0 0 0
2.9079804 -3.2042918 1.257567 0 0 0 0 0
3.1627102 -3.2254398 0.66245693 0 0 0 0 0
3.0120304 -3.2120821 0.8786661 0 0 0 0 0
2.7869546 -3.1984324 1.112932 0 0 0 0 0
2.7291548 -3.1091554 1.3230908 0 0 0 0 0
2.882961 -3.2135725 0.73584485 0 0 0 0 0
2.6781514 -3.2066123 0.96671629 0 0 0 0 0
2.4136961 -3.1924479 1.2164414 0 0 0 0 0
2.8278642 -2.8920712 1.3211099 0 0 0 0 0
2.5641494 -3.205467 0.81703645 0 0 0 0 0
2.3187327 -3.1989508 1.061762 0 0 0 0 0
2.0571313 -3.1607406 1.3173741 0 0 0 0 0
2.8089263 -2.7283268 1.3443295 0 0 0 0 0
2.2143247 -3.196825 0.90291774 0 0 0 0 0
1.9365275 -3.1853535 1.1619558 0 0 0 0 0
2.1925116 -2.9295013 1.3131796 0 0 0 0 0
1.7119505 -2.9527137 1.6307683 0 0 0 0 0
1.8634799 -3.1769979 0.99099892 0 0 0 0 0
1.5126241 -3.1702738 1.2707032 0 0 0 0 0
2.226742 -2.7410743 1.3265046 0 0 0 0 0
1.8086331 -2.7245724 1.6243564 0 0 0 0 0
1.434937 -3.1697576 1.094268 0 0 0 0 0
1.5234876 -2.9856672 1.296692 0 0 0 0 0
1.0344628 -2.9631557 1.6115093 0 0 0 0 0
1.9426543 -2.4926128 1.6076864 0 0 0 0 0
0.97285336 -3.1596837 1.2052803 0 0 0 0 0
1.581431 -2.786006 1.3107289 0 0 0 0 0
1.1905591 -2.7167485 1.5979996 0 0 0 0 0
2.0284917 -2.2857161 1.6010684 0 0 0 0 0
0.58140481 -3.1072762 1.3043127 0 0 0 0 0
1.3763242 -2.6747739 1.3767568 0 0 0 0 0
1.2351557 -2.5121648 1.6080829 0 0 0 0 0
2.0300887 -2.1048536 1.6127001 0 0 0 0 0
0.80353016 -2.8507602 1.2959808 0 0 0 0 0
0.45787048 -2.7558024 1.586306 0 0 0 0 0
1.3618124 -2.2905204 1.5963485 0 0 0 0 0
2.0785437 -1.914978 1.6111735 0 0 0 0 0
0.76443118 -2.678062 1.3311306 0 0 0 0 0
0.5758847 -2.5271227 1.5856984 0 0 0 0 0
2.1316557 -1.728577 1.6062939 0 0 0 0 0
-0.39383146 -2.8037851 1.5724658 0 0 0 0 0
0.63605541 -2.3187592 1.5947047 0 0 0 0 0
2.1674104 -1.5477874 1.6037017 0 0 0 0 0
-0.19464879 -2.5485377 1.5631118 0 0 0 0 0
1.55191 -1.7002804 1.5913745 0 0 0 0 0
2.199923 -1.3727773 1.6008078 0 0 0 0 0
0.93003112 -1.8777019 1.5682833 0 0 0 0 0
1.6044654 -1.5147523 1.5893108 0 0 0 0 0
2.2396054 -1.1974365 1.5941068 0 0 0 0 0
1.6381959 -1.3357321 1.5893215 0 0 0 0 0
2.2602232 -1.0285417 1.5908725 0 0 0 0 0
0.98997349 -1.5035099 1.5849657 0 0 0 0 0
1.6884885 -1.1571229 1.5850205 0 0 0 0 0
2.2689385 -0.86271083 1.5885972 0 0 0 0 0
1.0611215 -1.3144634 1.5809202 0 0 0 0 0
1.7257259 -0.98153943 1.5800425 0 0 0 0 0
2.2873609 -0.69668692 1.5843942 0 0 0 0 0
0.40722162 -1.4734395 1.5550857 0 0 0 0 0
1.1203662 -1.1284807 1.5778335 0 0 0 0 0
1.7582479 -0.80958086 1.5758493 0 0 0 0 0
0.42375174 -1.2876152 1.5697869 0 0 0 0 0
1.174165 -0.94809687 1.5747763 0 0 0 0 0
1.7692353 -0.63988262 1.574512 0 0 0 0 0
0.53958899 -1.091158 1.5601814 0 0 0 0 0
1.2214382 -0.76922619 1.57138 0 0 0 0 0
2.3208272 -0.20729282 1.5612338 0 0 0 0 0
0.61703247 -0.90358824 1.5565672 0 0 0 0 0
1.2581189 -0.5945155 1.5692176 0 0 0 0 0
2.2724338 -0.044817749 1.5672271 0 0 0 0 0
0.63031077 -0.7257033 1.5660338 0 0 0 0 0
1.7917595 -0.13816625 1.5654383 0 0 0 0 0
2.1860139 0.11985588 1.5816562 0 0 0 0 0
1.6379273 -0.5077163 1.3679106 0 0 0 0 0
1.7877299 0.028624889 1.5623617 0 0 0 0 0
1.6551095 -0.3493745 1.3717358 0 0 0 0 0
1.3215003 -0.079835124 1.5622957 0 0 0 0 0
2.1819129 0.44860986 1.5591625 0 0 0 0 0
1.4957269 -0.18934371 1.4104335 0 0 0 0 0
1.3402317 0.090174913 1.5579684 0 0 0 0 0
1.7642218 0.36436379 1.5548888 0 0 0 0 0
2.1361492 0.61866719 1.5573717 0 0 0 0 0
0.83655477 -0.011541715 1.5525894 0 0 0 0 0
1.7307833 0.53547281 1.5530192 0 0 0 0 0
2.0785232 0.793652 1.5554737 0 0 0 0 0
1.7671678 0.12330559 1.3614169 0 0 0 0 0
1.3402827 0.43515483 1.5512695 0 0 0 0 0
1.699864 0.70733601 1.5493959 0 0 0 0 0
0.97314882 0.33344606 1.5306237 0 0 0 0 0
1.354511 0.60542142 1.5440011 0 0 0 0 0
1.9515636 1.1505423 1.5515085 0 0 0 0 0
0.92038971 0.50948495 1.5424442 0 0 0 0 0
1.3165689 0.78199834 1.545422 0 0 0 0 0
1.6303067 1.0596335 1.5404383 0 0 0 0 0
1.8852997 1.337126 1.5461709 0 0 0 0 0
0.91640985 0.68642724 1.5432345 0 0 0 0 0
1.5616175 1.2455679 1.5404575 0 0 0 0 0
0.97453058 0.85808218 1.5283817 0 0 0 0 0
1.2472429 1.1424967 1.5426041 0 0 0 0 0
0.97788262 1.0342968 1.5240033 0 0 0 0 0
1.2161 1.3263563 1.5369728 0 0 0 0 0
0.94774365 1.2182851 1.5250028 0 0 0 0 0
0.91831738 1.4051391 1.5231248 0 0 0 0 0
5.4207964 1.165343 0.61640906 0 0 0 0 0
5.3531179 1.286871 0.61300015 0 0 0 0 0
5.2667289 1.2142479 0.61212111 0 0 0 0 0
5.2969403 1.4073715 0.60515344 0 0 0 0 0
5.2113833 1.333776 0.60733372 0 0 0 0 0
5.1995325 1.5503201 0.60357302 0 0 0 0 0
5.1331272 1.2588322 0.61657721 0 0 0 0 0
5.149159 1.4578512 0.60259634 0 0 0 0 0
5.077569 1.7093077 0.60495079 0 0 0 0 0
5.109982 1.1711091 0.61002451 0 0 0 0 0
5.1063938 1.3680203 0.60855871 0 0 0 0 0
5.0668721 1.595549 0.59882575 0 0 0 0 0
5.2881818 1.7181082 0.54028422 0 0 0 0 0
5.0497665 1.2902304 0.61231679 0 0 0 0 0
5.060019 1.4888186 0.60238707 0 0 0 0 0
5.0130935 1.7258533 0.58952057 0 0 0 0 0
5.5138826 1.710615 0.47319382 0 0 0 0 0
5.0423217 1.393868 0.60283947 0 0 0 0 0
4.9679294 1.6314299 0.60317373 0 0 0 0 0
5.2647634 1.716316 0.5212481 0 0 0 0 0
5.7226291 1.7016014 0.41187 0 0 0 0 0
4.9796863 1.522115 0.60215497 0 0 0 0 0
5.0067019 1.7220142 0.57925361 0 0 0 0 0
5.4926867 1.7077502 0.45746118 0 0 0 0 0
5.9069676 1.6956336 0.35554367 0 0 0 0 0
4.8915253 1.6644886 0.60506523 0 0 0 0 0
5.2742486 1.7052566 0.51188177 0 0 0 0 0
5.7007132 1.6989223 0.40031436 0 0 0 0 0
6.0770273 1.6908925 0.3031674 0 0 0 0 0
5.0100093 1.7214196 0.56835836 0 0 0 0 0
5.4750352 1.7100874 0.45647198 0 0 0 0 0
5.8839121 1.695152 0.34728509 0 0 0 0 0
6.2385373 1.682869 0.25305566 0 0 0 0 0
5.264812 1.7108334 0.50641769 0 0 0 0 0
5.6885433 1.6998636 0.40033117 0 0 0 0 0
6.0620003 1.6858258 0.29649532 0 0 0 0 0
6.377337 1.6817775 0.20806122 0 0 0 0 0
5.4890919 1.7028195 0.4513157 0 0 0 0 0
5.8768287 1.6927663 0.34976226 0 0 0 0 0
6.2172241 1.6814386 0.25088486 0 0 0 0 0
6.514122 1.6758649 0.16437049 0 0 0 0 0
5.6941094 1.6964128 0.40000668 0 0 0 0 0
6.0460062 1.6892692 0.30292445 0 0 0 0 0
6.3614278 1.6779548 0.20692763 0 0 0 0 0
6.6425114 1.6686631 0.12288211 0 0 0 0 0
5.8700452 1.6974182 0.35341457 0 0 0 0 0
6.2151418 1.6777807 0.25715274 0 0 0 0 0
6.4969954 1.6732434 0.16656481 0 0 0 0 0
6.7529922 1.6699632 0.08439555 0 0 0 0 0
6.0467534 1.6903515 0.30731431 0 0 0 0 0
6.3597579 1.6753362 0.21537475 0 0 0 0 0
6.6223574 1.6693544 0.12728062 0 0 0 0 0
6.8614593 1.6664423 0.047212675 0 0 0 0 0
6.2191658 1.6776478 0.26287916 0 0 0 0 0
6.4895964 1.6751341 0.17669778 0 0 0 0 0
6.7424197 1.6649113 0.089262925 0 0 0 0 0
6.9674907 1.6601125 0.01045346 0 0 0 0 0
6.3611746 1.6765043 0.22418535 0 0 0 0 0
6.615447 1.6732812 0.13956198 0 0 0 0 0
6.8541632 1.6601751 0.053416736 0 0 0 0 0
7.0633845 1.6586531 -0.023958864 0 0 0 0 0
6.5022235 1.670397 0.18482861 0 0 0 0 0
6.7378945 1.6667069 0.10348609 0 0 0 0 0
6.9501252 1.6627638 0.0202727 0 0 0 0 0
7.1530871 1.6557237 -0.05649934 0 0 0 0 0
6.6262827 1.6697642 0.15020275 0 0 0 0 0
6.8510275 1.661871 0.067883633 0 0 0 0 0
7.0533962 1.6557418 -0.013340285 0 0 0 0 0
7.2364082 1.6563259 -0.088141173 0 0 0 0 0
6.7464399 1.6654257 0.11578794 0 0 0 0 0
6.9544435 1.6598936 0.035507988 0 0 0 0 0
7.1471901 1.6515163 -0.045118634 0 0 0 0 0
7.3186069 1.6530229 -0.11908466 0 0 0 0 0
6.857935 1.663803 0.082633242 0 0 0 0 0
7.0588641 1.6528336 0.0035311671 0 0 0 0 0
7.2227321 1.6588016 -0.074806176 0 0 0 0 0
7.3950849 1.6511775 -0.1496418 0 0 0 0 0
6.966918 1.6583747 0.049933266 0 0 0 0 0
7.1462679 1.6551913 -0.026049113 0 0 0 0 0
7.3128819 1.6499168 -0.10413226 0 0 0 0 0
7.4731417 1.6442306 -0.17898208 0 0 0 0 0
7.0697861 1.6524729 0.019074084 0 0 0 0 0
7.2334409 1.6545594 -0.055536434 0 0 0 0 0
7.3858342 1.6524 -0.13333413 0 0 0 0 0
7.5190673 1.6669384 -0.20583704 0 0 0 0 0
7.1661959 1.6491061 -0.01085555 0 0 0 0 0
7.3223553 1.6477675 -0.085168257 0 0 0 0 0
7.4659328 1.6463307 -0.16164364 0 0 0 0 0
7.2502642 1.6507907 -0.038107533 0 0 0 0 0
7.3923578 1.6545602 -0.11219691 0 0 0 0 0
7.5212083 1.6603056 -0.18793671 0 0 0 0 0
7.3368893 1.6462344 -0.066078395 0 0 0 0 0
7.4784436 1.6430281 -0.1399508 0 0 0 0 0
7.4125352 1.6505729 -0.093462504 0 0 0 0 0
7.5410957 1.6514403 -0.16544448 0 0 0 0 0
7.4950185 1.6423728 -0.1198301 0 0 0 0 0
7.5536475 1.656129 -0.14481767 0 0 0 0 0
7.9606743 1.6271107 -0.38872015 0 0 0 0 0
8.0150604 1.6221322 -0.41360602 0 0 0 0 0
7.9561324 1.6402206 -0.36566582 0 0 0 0 0
8.0636406 1.6206663 -0.43677524 0 0 0 0 0
8.0220232 1.6213886 -0.38795498 0 0 0 0 0
8.1178236 1.6087549 -0.45923361 0 0 0 0 0
7.9812522 1.6330729 -0.33947587 0 0 0 0 0
8.0765905 1.6144598 -0.41056848 0 0 0 0 0
8.1952114 1.5610831 -0.476825 0 0 0 0 0
8.0406485 1.6237707 -0.36187047 0 0 0 0 0
8.1271439 1.6098236 -0.43397522 0 0 0 0 0
8.4757767 1.1881911 -0.44425759 0 0 0 0 0
8.0076485 1.6318235 -0.31404632 0 0 0 0 0
8.0945559 1.6189158 -0.38397172 0 0 0 0 0
8.1735964 1.609535 -0.45684478 0 0 0 0 0
8.5307627 1.1514376 -0.45685551 0 0 0 0 0
8.0703306 1.6182547 -0.33640373 0 0 0 0 0
8.1503592 1.6098942 -0.40627939 0 0 0 0 0
8.2398167 1.5757596 -0.4748224 0 0 0 0 0
8.5754719 1.1294962 -0.4704451 0 0 0 0 0
8.1255503 1.6123035 -0.35823014 0 0 0 0 0
8.1955767 1.6116984 -0.42945468 0 0 0 0 0
8.4948616 1.2267693 -0.44699383 0 0 0 0 0
8.608017 1.1234823 -0.486119 0 0 0 0 0
8.1780672 1.6075485 -0.38057506 0 0 0 0 0
8.2469711 1.6030381 -0.45110124 0 0 0 0 0
8.573081 1.1503122 -0.45239022 0 0 0 0 0
8.6417198 1.1143789 -0.50145626 0 0 0 0 0
8.2285357 1.6049671 -0.40265143 0 0 0 0 0
8.2974739 1.5934621 -0.47214255 0 0 0 0 0
8.616478 1.1294672 -0.46625453 0 0 0 0 0
8.6704817 1.1136473 -0.5180164 0 0 0 0 0
8.2787714 1.5993963 -0.42463472 0 0 0 0 0
8.5373039 1.2496178 -0.44572675 0 0 0 0 0
8.6570091 1.1108768 -0.47927588 0 0 0 0 0
8.7008219 1.1078142 -0.53335977 0 0 0 0 0
8.3281937 1.5939063 -0.44604379 0 0 0 0 0
8.6263332 1.1503383 -0.44824731 0 0 0 0 0
8.6846123 1.1132346 -0.49617282 0 0 0 0 0
8.7223339 1.1185817 -0.55311579 0 0 0 0 0
8.3614006 1.6136311 -0.47136554 0 0 0 0 0
8.6688385 1.1285776 -0.46150631 0 0 0 0 0
8.7203159 1.0970176 -0.50941318 0 0 0 0 0
8.7472353 1.1221355 -0.57053119 0 0 0 0 0
8.5838881 1.2761103 -0.44606283 0 0 0 0 0
8.7050896 1.116285 -0.47626305 0 0 0 0 0
8.7437153 1.1066697 -0.52807641 0 0 0 0 0
8.7322121 1.2133332 -0.61164409 0 0 0 0 0
8.683917 1.1490065 -0.44473469 0 0 0 0 0
8.7438383 1.0958632 -0.4880738 0 0 0 0 0
8.7703495 1.1071153 -0.54433697 0 0 0 0 0
8.6136408 1.5541817 -0.72333717 0 0 0 0 0
8.7189331 1.1388068 -0.45979714 0 0 0 0 0
8.7696304 1.1003329 -0.50609452 0 0 0 0 0
8.7919378 1.1188792 -0.56412405 0 0 0 0 0
8.6460371 1.5559497 -0.7472828 0 0 0 0 0
8.7653332 1.1057657 -0.47116581 0 0 0 0 0
8.7976551 1.1006787 -0.52211142 0 0 0 0 0
8.8040876 1.1542578 -0.59017682 0 0 0 0 0
8.6817446 1.5495077 -0.76885676 0 0 0 0 0
8.7958288 1.1019256 -0.48657119 0 0 0 0 0
8.8251038 1.1010433 -0.53894633 0 0 0 0 0
8.6982126 1.489206 -0.69870317 0 0 0 0 0
8.7449236 1.4664717 -0.76505983 0 0 0 0 0
8.8279791 1.0939804 -0.50079077 0 0 0 0 0
8.8495846 1.1066093 -0.5572418 0 0 0 0 0
8.7069921 1.5535076 -0.7388308 0 0 0 0 0
8.8561659 1.0932678 -0.51816899 0 0 0 0 0
8.8697481 1.125468 -0.57830763 0 0 0 0 0
8.7420397 1.5491394 -0.75989246 0 0 0 0 0
8.8610163 1.2993333 -0.75272262 0 0 0 0 0
8.8856916 1.0875154 -0.532938 0 0 0 0 0
8.7907085 1.4225918 -0.67478627 0 0 0 0 0
8.7821684 1.5264581 -0.77639264 0 0 0 0 0
8.8871355 1.3016863 -0.77346605 0 0 0 0 0
8.9110641 1.0939972 -0.55183882 0 0 0 0 0
8.7810183 1.5479882 -0.73230022 0 0 0 0 0
8.8589029 1.3867556 -0.75409782 0 0 0 0 0
8.899272 1.3477316 -0.81148624 0 0 0 0 0
8.9328842 1.1087508 -0.57171887 0 0 0 0 0
8.815568 1.5446357 -0.75421095 0 0 0 0 0
8.9016094 1.3441153 -0.76064879 0 0 0 0 0
8.9111147 1.4017253 -0.85278302 0 0 0 0 0
8.8768787 1.3742243 -0.66066962 0 0 0 0 0
8.8575068 1.5198425 -0.76958734 0 0 0 0 0
8.9107656 1.4112399 -0.80586445 0 0 0 0 0
8.9544086 1.3431879 -0.85278094 0 0 0 0 0
8.8616161 1.5339355 -0.72569537 0 0 0 0 0
8.9160824 1.4271833 -0.76400125 0 0 0 0 0
8.9438248 1.3981074 -0.82328808 0 0 0 0 0
9.0003586 1.2656881 -0.8428607 0 0 0 0 0
8.8962927 1.5365195 -0.75000262 0 0 0 0 0
8.950532 1.413951 -0.78118098 0 0 0 0 0
8.975152 1.3880835 -0.84186637 0 0 0 0 0
9.0338192 1.2288339 -0.84767002 0 0 0 0 0
8.9336567 1.5259725 -0.77039075 0 0 0 0 0
8.9823294 1.4068549 -0.8012448 0 0 0 0 0
9.0084286 1.366006 -0.85598248 0 0 0 0 0
9.052454 1.2525227 -0.87855059 0 0 0 0 0
8.9826117 1.4588778 -0.77334267 0 0 0 0 0
9.0179996 1.379595 -0.81471831 0 0 0 0 0
9.04636 1.3178524 -0.85808349 0 0 0 0 0
9.0972795 1.1485161 -0.85256404 0 0 0 0 0
9.0244865 1.4172101 -0.78295314 0 0 0 0 0
9.0456934 1.3896729 -0.84127927 0 0 0 0 0
9.0878248 1.2397174 -0.847471 0 0 0 0 0
9.1234636 1.1271043 -0.86290371 0 0 0 0 0
9.0586271 1.3999918 -0.80000889 0 0 0 0 0
9.0785227 1.3735509 -0.85860991 0 0 0 0 0
9.1251621 1.1698731 -0.83865595 0 0 0 0 0
9.159193 1.0437034 -0.84227186 0 0 0 0 0
9.0887918 1.4058838 -0.82595837 0 0 0 0 0
9.1133814 1.3335453 -0.86447477 0 0 0 0 0
9.1543684 1.1353735 -0.84286612 0 0 0 0 0
9.1850376 1.0124741 -0.84648824 0 0 0 0 0
9.1199379 1.39781 -0.84680915 0 0 0 0 0
9.1544876 1.2464843 -0.8513729 0 0 0 0 0
9.1792374 1.1278846 -0.86051482 0 0 0 0 0
9.2044668 1.0143723 -0.86620897 0 0 0 0 0
9.1558514 1.357662 -0.85464084 0 0 0 0 0
9.1838036 1.2188128 -0.86161339 0 0 0 0 0
9.2078724 1.0805774 -0.85850871 0 0 0 0 0
9.1912174 1.3135895 -0.86095613 0 0 0 0 0
9.2233143 1.1023171 -0.8309598 0 0 0 0 0
9.2364855 1.024387 -0.85180283 0 0 0 0 0
9.2289963 1.2228036 -0.8468253 0 0 0 0 0
9.2525101 1.0430562 -0.82473516 0 0 0 0 0
9.2593079 1.0062455 -0.8621487 0 0 0 0 0
9.2605324 1.166247 -0.84462696 0 0 0 0 0
9.2727966 1.0754665 -0.8614642 0 0 0 0 0
9.2899408 1.1108676 -0.84212923 0 0 0 0 0
8.5775461 -1.410859 -0.67754835 0 0 0 0 0
8.5095148 -1.4701267 -0.68735027 0 0 0 0 0
8.5055046 -1.6623051 -0.68165773 0 0 0 0 0
8.4531803 -1.5100148 -0.6902529 0 0 0 0 0
8.4566174 -1.5963737 -0.68366987 0 0 0 0 0
8.4101963 -1.7597187 -0.69518095 0 0 0 0 0
8.4012012 -1.8772063 -0.68791956 0 0 0 0 0
8.3734169 -1.5764563 -0.7017566 0 0 0 0 0
8.3849249 -1.6541978 -0.68842083 0 0 0 0 0
8.3629618 -1.7767663 -0.68316692 0 0 0 0 0
8.3183193 -1.9480549 -0.68755502 0 0 0 0 0
8.3543024 -1.5593823 -0.68426102 0 0 0 0 0
8.307126 -1.7155468 -0.69263017 0 0 0 0 0
8.2933798 -1.8244534 -0.67938626 0 0 0 0 0
8.2419977 -2.0011363 -0.68038619 0 0 0 0 0
8.2698908 -1.6254005 -0.69371128 0 0 0 0 0
8.2574301 -1.7314602 -0.68252695 0 0 0 0 0
8.2163887 -1.8776207 -0.67663819 0 0 0 0 0
8.1513634 -2.0692451 -0.67573291 0 0 0 0 0
8.226532 -1.6347991 -0.68424249 0 0 0 0 0
8.1780624 -1.7855481 -0.68302006 0 0 0 0 0
8.1162167 -1.9552437 -0.67895037 0 0 0 0 0
8.0895424 -2.0890522 -0.65964466 0 0 0 0 0
8.1368113 -1.6983204 -0.69112682 0 0 0 0 0
8.0965672 -1.8384588 -0.68321365 0 0 0 0 0
8.0122118 -2.0325241 -0.6797834 0 0 0 0 0
8.039813 -2.0875485 -0.63811159 0 0 0 0 0
8.0713186 -1.7292659 -0.68738574 0 0 0 0 0
8.0185547 -1.8804405 -0.67826569 0 0 0 0 0
7.9372869 -2.0655084 -0.66823953 0 0 0 0 0
7.9925094 -2.0801842 -0.61570287 0 0 0 0 0
7.9831161 -1.7817394 -0.69019037 0 0 0 0 0
7.9199505 -1.9420758 -0.67886353 0 0 0 0 0
7.8812017 -2.0696273 -0.64970583 0 0 0 0 0
7.9466724 -2.0719233 -0.59308136 0 0 0 0 0
7.9088149 -1.8150135 -0.68642634 0 0 0 0 0
7.8217497 -1.9996203 -0.67598283 0 0 0 0 0
7.831943 -2.0651958 -0.62965816 0 0 0 0 0
7.8896098 -2.074903 -0.57261193 0 0 0 0 0
7.8417521 -1.8386979 -0.67896891 0 0 0 0 0
7.7176747 -2.0577002 -0.67265356 0 0 0 0 0
7.7829919 -2.0567777 -0.60973454 0 0 0 0 0
7.8031931 -2.1099112 -0.55792969 0 0 0 0 0
7.6622148 -2.0568981 -0.65566725 0 0 0 0 0
7.7270522 -2.0558522 -0.5899635 0 0 0 0 0
7.6127658 -2.0474648 -0.63659269 0 0 0 0 0
7.6706147 -2.053911 -0.57104152 0 0 0 0 0
7.5512772 -2.0491915 -0.61909592 0 0 0 0 0
7.5661793 -2.0976682 -0.5597921 0 0 0 0 0
6.4993973 -3.3207436 -0.65758073 0 0 0 0 0
7.4186869 -2.0446556 -0.67373359 0 0 0 0 0
7.490757 -2.0490057 -0.60223538 0 0 0 0 0
7.4396963 -2.1598158 -0.54936832 0 0 0 0 0
6.378324 -3.3314149 -0.62409312 0 0 0 0 0
7.3546591 -2.0462444 -0.65811676 0 0 0 0 0
7.4266434 -2.0485396 -0.58528817 0 0 0 0 0
6.2709804 -3.3239889 -0.58760864 0 0 0 0 0
7.3452749 -2.0618427 -0.56998253 0 0 0 0 0
6.1463819 -3.3303318 -0.55276579 0 0 0 0 0
4.7503171 -3.2835462 -0.51805449 0 0 0 0 0
4.7686 -3.2932007 -0.36365399 0 0 0 0 0
4.8156366 -3.290113 -0.21204935 0 0 0 0 0
4.4832735 -3.298147 -0.65101826 0 0 0 0 0
4.5638037 -3.2871993 -0.48609418 0 0 0 0 0
4.6020255 -3.278178 -0.32693484 0 0 0 0 0
4.6336608 -3.2777691 -0.17068166 0 0 0 0 0
4.3360023 -3.2767401 -0.61915857 0 0 0 0 0
4.3797941 -3.2839959 -0.45328915 0 0 0 0 0
4.4050493 -3.2748439 -0.2899048 0 0 0 0 0
4.4346442 -3.2701018 -0.12845005 0 0 0 0 0
4.1460319 -3.2772279 -0.59080708 0 0 0 0 0
4.2019501 -3.2701676 -0.41845807 0 0 0 0 0
4.2188778 -3.2582572 -0.25160292 0 0 0 0 0
4.2303681 -3.254997 -0.086018056 0 0 0 0 0
3.9607594 -3.2679882 -0.56064224 0 0 0 0 0
3.9946728 -3.2661159 -0.38395232 0 0 0 0 0
3.9878881 -3.2602284 -0.21157676 0 0 0 0 0
3.9833174 -3.2575729 -0.040831286 0 0 0 0 0
3.7620318 -3.260654 -0.52840108 0 0 0 0 0
3.7677295 -3.2645478 -0.34913209 0 0 0 0 0
3.7606027 -3.2504406 -0.17143507 0 0 0 0 0
3.7429786 -3.2456 0.004865597 0 0 0 0 0
3.5358851 -3.258275 -0.49778876 0 0 0 0 0
3.5408463 -3.2558806 -0.31174427 0 0 0 0 0
3.5167382 -3.2393503 -0.13061562 0 0 0 0 0
3.4819975 -3.2349718 0.052812666 0 0 0 0 0
3.3113506 -3.2499549 -0.46572679 0 0 0 0 0
3.2923331 -3.2495782 -0.27510354 0 0 0 0 0
3.2386298 -3.2365549 -0.086706802 0 0 0 0 0
3.1887867 -3.2278171 0.10254545 0 0 0 0 0
3.0679564 -3.241148 -0.43262526 0 0 0 0 0
3.0270793 -3.2409148 -0.23642349 0 0 0 0 0
2.9524846 -3.2261226 -0.043085199 0 0 0 0 0
2.8744266 -3.2179401 0.15497836 0 0 0 0 0
2.8159771 -3.2286286 -0.39829412 0 0 0 0 0
2.7445087 -3.2298713 -0.1965225 0 0 0 0 0
2.649358 -3.2132676 0.0039682817 0 0 0 0 0
2.5359848 -3.207134 0.20968634 0 0 0 0 0
2.5243587 -3.2250633 -0.36321008 0 0 0 0 0
2.4347694 -3.2216854 -0.15471001 0 0 0 0 0
2.3089418 -3.2045023 0.052681439 0 0 0 0 0
2.1546359 -3.2019072 0.26874384 0 0 0 0 0
2.2116761 -3.2208304 -0.32675618 0 0 0 0 0
2.0914872 -3.2158768 -0.11138647 0 0 0 0 0
1.9372557 -3.1942472 0.10384315 0 0 0 0 0
1.7559266 -3.1842542 0.32928693 0 0 0 0 0
1.8801259 -3.2130594 -0.28796321 0 0 0 0 0
1.7279483 -3.2064302 -0.065967761 0 0 0 0 0
1.5359215 -3.1796126 0.15760429 0 0 0 0 0
1.2952206 -3.1746826 0.39531207 0 0 0 0 0
1.5212934 -3.2021477 -0.24826287 0 0 0 0 0
1.3264495 -3.1959481 -0.01707764 0 0 0 0 0
1.0772287 -3.1704314 0.21609344 0 0 0 0 0
0.75048453 -3.1744382 0.46882612 0 0 0 0 0
1.1416284 -3.1875787 -0.20728523 0 0 0 0 0
0.90164775 -3.1776233 0.032477945 0 0 0 0 0
0.50279278 -3.1811693 0.28210717 0 0 0 0 0
0.087124087 -3.1857548 0.55330628 0 0 0 0 0
0.66432291 -3.1914465 -0.16291335 0 0 0 0 0
0.28781986 -3.2056394 0.090320647 0 0 0 0 0
-0.16189167 -3.1987605 0.35514706 0 0 0 0 0
-0.74824733 -3.2243707 0.65533924 0 0 0 0 0
0.12035405 -3.202081 -0.11463972 0 0 0 0 0
-0.38144407 -3.229182 0.1542165 0 0 0 0 0
-0.97726774 -3.2324455 0.43957698 0 0 0 0 0
-1.7363027 -3.2698069 0.77159917 0 0 0 0 0
-0.55911773 -3.2352235 -0.062129349 0 0 0 0 0
-1.1599716 -3.2610841 0.22624058 0 0 0 0 0
-1.7594063 -3.2295043 0.52594918 0 0 0 0 0
-1.3259416 -3.2664309 -0.0032031175 0 0 0 0 0
-1.7545193 -3.2120779 0.29188219 0 0 0 0 0
-1.766283 -3.1845703 0.050190303 0 0 0 0 0
-7.1103897 -2.2466297 1.4373791 0 0 0 0 0
-9.132267 -2.5644717 1.2921704 0 0 0 0 0
-6.9309821 -1.8805339 1.4261581 0 0 0 0 0
-9.1149406 -2.1909809 1.3094445 0 0 0 0 0
-6.9536657 -1.5375051 1.4292765 0 0 0 0 0
-9.0517569 -1.8162206 1.3201959 0 0 0 0 0
-6.9320331 -1.1951002 1.4256905 0 0 0 0 0
-13.501737 -2.3849497 1.3338976 0 0 0 0 0
-9.1856565 -1.4560242 1.3407437 0 0 0 0 0
-5.6440115 -0.80120629 1.2888733 0 0 0 0 0
-13.550611 -1.9507625 1.3636482 0 0 0 0 0
-9.2709475 -1.0908146 1.3529216 0 0 0 0 0
-5.7275486 -0.49170592 1.288746 0 0 0 0 0
-11.334306 -1.3876591 1.231236 0 0 0 0 0
-9.0212517 -0.71240091 1.3317118 0 0 0 0 0
-5.6487799 -0.17834845 1.2675626 0 0 0 0 0
-13.627739 -1.0823117 1.4123298 0 0 0 0 0
-7.8772697 -0.33933035 1.2320611 0 0 0 0 0
-6.8441372 0.15903124 1.3684598 0 0 0 0 0
-10.391506 -0.5837515 1.1912724 0 0 0 0 0
-9.4234104 0.020874323 1.3562777 0 0 0 0 0
-7.8374634 0.54019088 1.4433137 0 0 0 0 0
-10.431387 -0.20610596 1.1999453 0 0 0 0 0
-7.1902676 0.32166487 1.1558269 0 0 0 0 0
-5.1536546 0.72319269 1.156933 0 0 0 0 0
-9.3016157 0.1496378 1.12088 0 0 0 0 0
-9.4511423 0.76872718 1.3283319 0 0 0 0 0
-6.0870066 1.1002423 1.2164435 0 0 0 0 0
-11.304691 -0.052175544 1.0103822 0 0 0 0 0
-2.1684608 1.0068336 0.82246697 0 0 0 0 0
-3.1465967 0.93642372 0.77348483 0 0 0 0 0
0.26637375 0.93941504 0.57687086 0 0 0 0 0
-4.3943076 0.84452367 0.75085014 0 0 0 0 0
-0.60215253 0.90041226 0.55183518 0 0 0 0 0
0.30250677 1.1223805 0.54839206 0 0 0 0 0
-5.7514863 0.73908764 0.6984722 0 0 0 0 0
-1.6673148 0.84610128 0.54604208 0 0 0 0 0
0.20847346 0.99373972 0.46968266 0 0 0 0 0
0.20230784 1.327257 0.53065187 0 0 0 0 0
-2.95871 0.79276961 0.52566189 0 0 0 0 0
-0.95801914 0.9780879 0.4870953 0 0 0 0 0
-0.92202216 1.3491257 0.5364213 0 0 0 0 0
0.20866999 1.5184407 0.49883479 0 0 0 0 0
-2.2015421 0.94648039 0.47758543 0 0 0 0 0
-0.97008502 1.1803284 0.47459564 0 0 0 0 0
-0.99231803 1.5667067 0.51752156 0 0 0 0 0
0.037575275 1.7458255 0.48009413 0 0 0 0 0
-2.2033496 1.1632606 0.47410727 0 0 0 0 0
-1.0128715 1.3879831 0.46302867 0 0 0 0 0
-0.90268707 1.7594113 0.48345947 0 0 0 0 0
0.57397979 1.8174387 0.40554431 0 0 0 0 0
-2.2079632 1.3841838 0.46780729 0 0 0 0 0
-1.7909385 1.7271059 0.49566618 0 0 0 0 0
-0.077104673 1.7922736 0.39795104 0 0 0 0 0
1.2690233 1.828305 0.320795 0 0 0 0 0
-2.2281005 1.6062667 0.46021858 0 0 0 0 0
-0.76673126 1.7486128 0.40967783 0 0 0 0 0
0.56101578 1.8360689 0.32707265 0 0 0 0 0
2.0098186 1.7975373 0.23715693 0 0 0 0 0
-1.6210843 1.7223997 0.41165176 0 0 0 0 0
0.043168359 1.7760783 0.33750919 0 0 0 0 0
1.3439138 1.8183318 0.25082463 0 0 0 0 0
2.5710237 1.7891618 0.16899559 0 0 0 0 0
-0.68461084 1.751281 0.34470043 0 0 0 0 0
0.63461816 1.8238961 0.27996036 0 0 0 0 0
2.0045989 1.8043001 0.18352881 0 0 0 0 0
3.0815012 1.7738988 0.1082039 0 0 0 0 0
0.093413256 1.779635 0.28639373 0 0 0 0 0
1.3942747 1.8082751 0.21397978 0 0 0 0 0
2.5675726 1.7910324 0.12378953 0 0 0 0 0
3.548497 1.7530758 0.050944131 0 0 0 0 0
0.67429835 1.8245605 0.23864497 0 0 0 0 0
2.0109646 1.8010128 0.1581974 0 0 0 0 0
3.0871696 1.769258 0.069885343 0 0 0 0 0
3.9412737 1.7382101 0.00074677571 0 0 0 0 0
1.4393204 1.8037668 0.18100025 0 0 0 0 0
2.5995595 1.7789347 0.10469887 0 0 0 0 0
3.5511837 1.746913 0.020797785 0 0 0 0 0
4.2838354 1.727376 -0.044632163 0 0 0 0 0
2.0501711 1.7941856 0.13293403 0 0 0 0 0
3.0789683 1.7675307 0.058494508 0 0 0 0 0
3.9166017 1.7394025 -0.02222885 0 0 0 0 0
4.5539246 1.7313253 -0.085194208 0 0 0 0 0
2.6186223 1.7749584 0.088766925 0 0 0 0 0
3.5348358 1.7459941 0.015150188 0 0 0 0 0
4.265975 1.7251843 -0.062693208 0 0 0 0 0
4.836915 1.7182697 -0.12421557 0 0 0 0 0
3.1013253 1.7614477 0.047533002 0 0 0 0 0
3.9098439 1.7348999 -0.022474527 0 0 0 0 0
4.5350275 1.7283845 -0.097654983 0 0 0 0 0
5.0768518 1.7126281 -0.16092597 0 0 0 0 0
3.5341656 1.7459083 0.010729337 0 0 0 0 0
4.2541671 1.7222252 -0.058131643 0 0 0 0 0
4.8051205 1.7195073 -0.13118269 0 0 0 0 0
5.3030157 1.7041464 -0.19413684 0 0 0 0 0
3.9083776 1.7340032 -0.022686949 0 0 0 0 0
4.5248671 1.7243718 -0.090608075 0 0 0 0 0
5.0521851 1.7114165 -0.1644022 0 0 0 0 0
5.5075407 1.6963509 -0.22679563 0 0 0 0 0
4.2590137 1.7189599 -0.054279082 0 0 0 0 0
4.8063416 1.710691 -0.12124405 0 0 0 0 0
5.2722254 1.7055125 -0.1944728 0 0 0 0 0
5.6925464 1.6911162 -0.25790241 0 0 0 0 0
4.5218844 1.7228497 -0.0824356 0 0 0 0 0
5.0478587 1.7051589 -0.15050532 0 0 0 0 0
5.4816751 1.6954484 -0.2233099 0 0 0 0 0
5.8550901 1.6897002 -0.28658363 0 0 0 0 0
4.7942948 1.7130048 -0.10905734 0 0 0 0 0
5.2679944 1.6993599 -0.17697318 0 0 0 0 0
5.6652241 1.6914767 -0.24969645 0 0 0 0 0
6.0107899 1.6858368 -0.31418011 0 0 0 0 0
5.0305028 1.70997 -0.13575315 0 0 0 0 0
5.469511 1.6939856 -0.20379394 0 0 0 0 0
5.8316188 1.6888267 -0.27622309 0 0 0 0 0
6.1644754 1.677152 -0.34047291 0 0 0 0 0
5.2553048 1.7028559 -0.16064066 0 0 0 0 0
5.6528192 1.6900758 -0.22878817 0 0 0 0 0
5.990356 1.6838096 -0.30109054 0 0 0 0 0
6.2969079 1.6741366 -0.36636874 0 0 0 0 0
5.461822 1.6962095 -0.18367061 0 0 0 0 0
5.827157 1.6848955 -0.25239787 0 0 0 0 0
6.1369224 1.6797341 -0.32594144 0 0 0 0 0
6.4309192 1.6660197 -0.39104781 0 0 0 0 0
5.6484842 1.6920811 -0.20735939 0 0 0 0 0
5.9779606 1.6845685 -0.27524921 0 0 0 0 0
6.2820497 1.6708186 -0.34867054 0 0 0 0 0
6.5480084 1.662214 -0.41595986 0 0 0 0 0
5.8252845 1.6857665 -0.22905844 0 0 0 0 0
6.131321 1.6780006 -0.29881927 0 0 0 0 0
6.4128795 1.6640216 -0.37108329 0 0 0 0 0
6.6537333 1.6623203 -0.44013008 0 0 0 0 0
5.9793649 1.6842241 -0.2505731 0 0 0 0 0
6.2735829 1.6713398 -0.32070553 0 0 0 0 0
6.5317707 1.6611555 -0.39357227 0 0 0 0 0
7.4188013 1.1858039 -0.4057003 0 0 0 0 0
6.1419034 1.6730332 -0.27092066 0 0 0 0 0
6.4096541 1.6632086 -0.34071994 0 0 0 0 0
7.3857198 1.1494139 -0.36740708 0 0 0 0 0
7.4215841 1.2360184 -0.42971626 0 0 0 0 0
6.2805638 1.6697042 -0.29142061 0 0 0 0 0
6.5222406 1.6648707 -0.3623412 0 0 0 0 0
7.4231734 1.175047 -0.3857961 0 0 0 0 0
7.4641151 1.2561647 -0.45057809 0 0 0 0 0
6.4063158 1.668394 -0.31136072 0 0 0 0 0
6.6372213 1.6613505 -0.38331994 0 0 0 0 0
7.424087 1.2254851 -0.40727112 0 0 0 0 0
7.5872436 1.2111968 -0.46113023 0 0 0 0 0
6.5392141 1.6585313 -0.33040822 0 0 0 0 0
7.4073801 1.1860707 -0.36099589 0 0 0 0 0
7.4301467 1.2744843 -0.42995048 0 0 0 0 0
7.6703148 1.1923109 -0.47471243 0 0 0 0 0
6.6458406 1.661713 -0.35025066 0 0 0 0 0
7.420414 1.2306275 -0.38012218 0 0 0 0 0
7.483254 1.2868563 -0.44864538 0 0 0 0 0
7.7411804 1.1813612 -0.48931292 0 0 0 0 0
6.7560186 1.6566229 -0.3691138 0 0 0 0 0
7.4296727 1.2774152 -0.40143406 0 0 0 0 0
7.6279645 1.2212759 -0.45528299 0 0 0 0 0
7.791151 1.1850066 -0.50600588 0 0 0 0 0
6.8617887 1.6518941 -0.38731596 0 0 0 0 0
7.4249072 1.3373022 -0.42358872 0 0 0 0 0
7.7147336 1.1991628 -0.46664858 0 0 0 0 0
6.9651237 1.6443561 -0.4050945 0 0 0 0 0
7.2481995 1.5393019 -0.46586901 0 0 0 0 0
7.770031 1.1994194 -0.48227352 0 0 0 0 0
7.4267831 1.3450968 -0.39416555 0 0 0 0 0
7.3679385 1.5015475 -0.47876173 0 0 0 0 0
7.4261856 1.4046844 -0.415589 0 0 0 0 0
7.762403 1.213954 -0.45335022 0 0 0 0 0
7.3694029 1.5135139 -0.44528556 0 0 0 0 0
7.2994604 1.6403019 -0.47876456 0 0 0 0 0
7.8252826 1.6204919 -0.77659166 0 0 0 0 0
7.8326354 1.6223269 -0.73159647 0 0 0 0 0
7.8827772 1.6218624 -0.75095016 0 0 0 0 0
8.2439709 1.1520413 -0.5694772 0 0 0 0 0
7.9266739 1.6278145 -0.77310085 0 0 0 0 0
8.0237913 1.4771217 -0.66636831 0 0 0 0 0
7.99189 1.6043329 -0.78524476 0 0 0 0 0
8.3069687 1.2687545 -0.75772756 0 0 0 0 0
8.2853737 1.1289378 -0.53187382 0 0 0 0 0
7.9677114 1.6092589 -0.71924371 0 0 0 0 0
8.3199158 1.133848 -0.54625267 0 0 0 0 0
8.0084 1.6204742 -0.74146259 0 0 0 0 0
8.3495245 1.1440784 -0.56315392 0 0 0 0 0
8.0587311 1.6150081 -0.75984317 0 0 0 0 0
8.3684444 1.1680814 -0.58322614 0 0 0 0 0
8.1143398 1.6012132 -0.77479029 0 0 0 0 0
8.178299 1.4937648 -0.68287164 0 0 0 0 0
8.1842928 1.5624269 -0.78328371 0 0 0 0 0
8.4479313 1.2299216 -0.75255316 0 0 0 0 0
8.6139507 1.0306249 -0.74670732 0 0 0 0 0
8.1508617 1.5987921 -0.72960961 0 0 0 0 0
8.3233128 1.4130827 -0.75486088 0 0 0 0 0
8.5285988 1.1508179 -0.74017328 0 0 0 0 0
8.6816168 0.95864624 -0.73113769 0 0 0 0 0
8.1940479 1.6018783 -0.74888265 0 0 0 0 0
8.5724525 1.1261771 -0.7458899 0 0 0 0 0
8.7311716 0.91083819 -0.7255066 0 0 0 0 0
8.2420979 1.5955963 -0.76690161 0 0 0 0 0
8.7722416 0.87662226 -0.72337711 0 0 0 0 0
8.2900715 1.5883176 -0.78488958 0 0 0 0 0
8.5290108 1.2487689 -0.75163609 0 0 0 0 0
8.6861353 1.0213859 -0.73530143 0 0 0 0 0
8.7383146 0.97138506 -0.72912085 0 0 0 0 0
8.6547537 1.1309971 -0.74126655 0 0 0 0 0
8.7773161 0.9402346 -0.73035657 0 0 0 0 0
8.8537445 0.8365376 -0.74490601 0 0 0 0 0
8.7069921 1.0828846 -0.7387507 0 0 0 0 0
8.8292332 0.88141245 -0.71808386 0 0 0 0 0
8.7609901 1.0277203 -0.73274571 0 0 0 0 0
8.8212938 0.98828441 -0.85060304 0 0 0 0 0
8.8056898 0.986229 -0.72966796 0 0 0 0 0
8.8488445 0.94284433 -0.72677201 0 0 0 0 0
8.8927841 0.87726635 -0.75794703 0 0 0 0 0
8.8980598 0.9054749 -0.83801228 0 0 0 0 0
8.7891703 1.091543 -0.7400645 0 0 0 0 0
8.8711481 0.94464785 -0.74240243 0 0 0 0 0
8.8510332 1.0252959 -0.84497088 0 0 0 0 0
8.8373442 1.0407832 -0.73597652 0 0 0 0 0
8.8877544 0.95679212 -0.76234633 0 0 0 0 0
8.9484482 0.87408453 -0.85092217 0 0 0 0 0
8.8759336 1.0085934 -0.73939162 0 0 0 0 0
8.8370314 1.1441902 -0.86415565 0 0 0 0 0
8.9103508 0.98718452 -0.85819888 0 0 0 0 0
8.8397923 1.1663744 -0.8215735 0 0 0 0 0
8.8849421 1.0846093 -0.85397542 0 0 0 0 0
8.8514576 1.2094921 -0.85810834 0 0 0 0 0
8.9537811 0.95823526 -0.80993176 0 0 0 0 0
8.9897223 0.8804726 -0.83332455 0 0 0 0 0
8.8937035 1.1660835 -0.85824072 0 0 0 0 0
8.9592867 1.0057143 -0.85059404 0 0 0 0 0
8.9352379 1.1198092 -0.85549545 0 0 0 0 0
9.004097 0.93562329 -0.83114421 0 0 0 0 0
8.968895 1.0929394 -0.86143297 0 0 0 0 0
9.015686 1.0166266 -0.84352005 0 0 0 0 0
9.0526571 0.90723664 -0.84881175 0 0 0 0 0
9.0491066 0.97699231 -0.8410309 0 0 0 0 0
9.098196 0.95342171 -0.86384845 0 0 0 0 0
8.3880091 -1.3944565 -0.68578291 0 0 0 0 0
8.3274813 -1.4248905 -0.68551868 0 0 0 0 0
8.2721491 -1.4466122 -0.68259192 0 0 0 0 0
8.2791567 -1.3378888 -0.68621522 0 0 0 0 0
8.227066 -1.3538309 -0.68298697 0 0 0 0 0
8.1140947 -1.5299411 -0.68959212 0 0 0 0 0
8.5246792 -0.98920709 -0.57682729 0 0 0 0 0
8.1614504 -1.3809379 -0.68518305 0 0 0 0 0
8.0383081 -1.5632204 -0.68967456 0 0 0 0 0
8.4927931 -0.99568951 -0.57413059 0 0 0 0 0
8.0797892 -1.4199637 -0.69104958 0 0 0 0 0
7.949976 -1.6035925 -0.69088459 0 0 0 0 0
8.4639091 -0.99633044 -0.56974012 0 0 0 0 0
6.3833146 -2.023344 -0.658364 0 0 0 0 0
6.2760243 -2.0116253 -0.64504343 0 0 0 0 0
6.1534848 -2.0058033 -0.63336885 0 0 0 0 0
5.9962034 -2.0124717 -0.62568665 0 0 0 0 0
5.8579779 -2.0044312 -0.61393946 0 0 0 0 0
5.6851635 -2.0068882 -0.60624665 0 0 0 0 0
5.5930948 -1.9650731 -0.71660924 0 0 0 0 0
5.5147758 -2.0034847 -0.59767812 0 0 0 0 0
5.3882136 -1.9772733 -0.71472448 0 0 0 0 0
5.3118324 -2.0066495 -0.59083372 0 0 0 0 0
5.2136307 -1.9696271 -0.70922148 0 0 0 0 0
5.08008 -2.0146697 -0.58586204 0 0 0 0 0
6.6334114 -1.3268553 -0.71158999 0 0 0 0 0
4.9906678 -1.9744267 -0.70790678 0 0 0 0 0
4.8802481 -1.9999534 -0.57712162 0 0 0 0 0
4.7432961 -1.9813918 -0.70782673 0 0 0 0 0
4.6538115 -1.9902736 -0.57058454 0 0 0 0 0
4.5059156 -1.9750229 -0.70590025 0 0 0 0 0
4.2703595 -2.0249383 -0.5733189 0 0 0 0 0
4.2531648 -1.9655012 -0.70532441 0 0 0 0 0
3.9715798 -2.0177872 -0.56979191 0 0 0 0 0
3.9782774 -1.9542774 -0.70504594 0 0 0 0 0
3.6646931 -1.9461521 -0.70698512 0 0 0 0 0
3.3048036 -1.938552 -0.71184826 0 0 0 0 0
4.4829154 -1.5104232 -0.60194349 0 0 0 0 0
4.4699988 -1.4206203 -0.58589339 0 0 0 0 0
4.4669847 -1.4077177 -0.69471622 0 0 0 0 0
1.9119152 -1.9121745 -0.74463105 0 0 0 0 0
3.8706276 -1.3635675 -0.59613323 0 0 0 0 0
3.8819711 -1.2586061 -0.58088773 0 0 0 0 0
6.1226387 -0.88519174 -0.5893538 0 0 0 0 0
3.924732 -1.2552054 -0.68786865 0 0 0 0 0
2.9652951 -1.3174875 -0.62266999 0 0 0 0 0
5.9198861 -0.87075663 -0.59690428 0 0 0 0 0
3.0252492 -1.3178395 -0.74304181 0 0 0 0 0
-4.5854473 -2.0972271 -0.74291837 0 0 0 0 0
5.7198772 -0.84952641 -0.60500228 0 0 0 0 0
3.106276 -1.1959504 -0.72013783 0 0 0 0 0
5.5271149 -0.82175761 -0.61070621 0 0 0 0 0
5.3764358 -0.78006631 -0.61265379 0 0 0 0 0
-8.5195484 -1.6030577 -0.85924053 0 0 0 0 0
5.0365152 -0.75838083 -0.63122207 0 0 0 0 0
3.9049976 -0.78701258 -0.62157393 0 0 0 0 0
-2.2196689 -1.1605078 -0.84822971 0 0 0 0 0
4.5472326 -0.74259806 -0.66232467 0 0 0 0 0
3.5313582 -0.72751933 -0.63757426 0 0 0 0 0
1.2070082 -0.73323715 -0.66201043 0 0 0 0 0
3.8682256 -0.72865987 -0.70806533 0 0 0 0 0
2.5474343 -0.69839656 -0.694848 0 0 0 0 0
-1.9933555 -0.73571813 -0.82381535 0 0 0 0 0
3.4092572 -0.67588466 -0.73271757 0 0 0 0 0
1.5318497 -0.63669127 -0.75112182 0 0 0 0 0
-0.98433268 -0.50296289 -0.76954418 0 0 0 0 0
3.0947425 -0.59779227 -0.74582547 0 0 0 0 0
1.4815475 -0.50523275 -0.74695194 0 0 0 0 0
-1.1516804 -0.31971571 -0.77849633 0 0 0 0 0
2.9830287 -0.50073504 -0.74208552 0 0 0 0 0
1.4432263 -0.36971402 -0.74377191 0 0 0 0 0
-1.19665 -0.1308098 -0.78529721 0 0 0 0 0
2.6911356 -0.40427095 -0.75355005 0 0 0 0 0
1.2440157 -0.23512751 -0.75102299 0 0 0 0 0
-1.3016664 0.060562227 -0.79752147 0 0 0 0 0
2.4490213 -0.29851243 -0.76188195 0 0 0 0 0
1.22355 -0.095012963 -0.74928123 0 0 0 0 0
-1.2817289 0.2504603 -0.80467874 0 0 0 0 0
2.3850083 -0.18604358 -0.75707525 0 0 0 0 0
1.0420045 0.049171064 -0.75894344 0 0 0 0 0
-0.92930758 0.41713616 -0.79663479 0 0 0 0 0
2.0398247 -0.064573184 -0.77451921 0 0 0 0 0
1.0005922 0.19372986 -0.763161 0 0 0 0 0
1.9808095 0.059449948 -0.77295613 0 0 0 0 0
0.96292794 0.3400012 -0.76752752 0 0 0 0 0
1.9857504 0.18166123 -0.7674799 0 0 0 0 0
1.0526949 0.47756138 -0.76751548 0 0 0 0 0
1.8526046 0.31415048 -0.77475059 0 0 0 0 0
0.98567116 0.62787926 -0.77927291 0 0 0 0 0
1.8745178 0.43699032 -0.77140671 0 0 0 0 0
1.0434035 0.76673895 -0.78483546 0 0 0 0 0
1.679634 0.58304548 -0.78632164 0 0 0 0 0
1.1045758 0.90332496 -0.79042315 0 0 0 0 0
1.6720166 0.71404177 -0.78770787 0 0 0 0 0
1.6996822 0.84125561 -0.79074937 0 0 0 0 0
2.6888723 1.7742165 -0.82486659 0 0 0 0 0
3.1592093 1.7505531 -0.80385923 0 0 0 0 0
3.5649278 1.7307755 -0.78625274 0 0 0 0 0
3.8945346 1.725686 -0.77594352 0 0 0 0 0
4.4858747 1.7034348 -0.79592466 0 0 0 0 0
4.2002306 1.7174153 -0.76601994 0 0 0 0 0
4.7080216 1.7083154 -0.79666489 0 0 0 0 0
4.4626045 1.7153528 -0.76096022 0 0 0 0 0
4.9233351 1.7076966 -0.79761994 0 0 0 0 0
4.7173295 1.7078718 -0.75554103 0 0 0 0 0
5.1311526 1.7036527 -0.79827738 0 0 0 0 0
4.9851875 1.6863756 -0.74867368 0 0 0 0 0
5.3411331 1.6914369 -0.7981993 0 0 0 0 0
5.1611753 1.6957754 -0.75110096 0 0 0 0 0
5.5137343 1.6900123 -0.80216533 0 0 0 0 0
6.3639579 1.395546 -0.76833951 0 0 0 0 0
5.3620725 1.6882874 -0.75064278 0 0 0 0 0
5.7559776 1.6464628 -0.79370236 0 0 0 0 0
6.5708075 1.3437395 -0.75842321 0 0 0 0 0
5.5511432 1.678732 -0.74925643 0 0 0 0 0
5.9447851 1.622875 -0.79245651 0 0 0 0 0
5.7059312 1.6807032 -0.75285035 0 0 0 0 0
5.8624601 1.6765143 -0.75658882 0 0 0 0 0
6.0060048 1.6733476 -0.75973612 0 0 0 0 0
6.1465392 1.6673909 -0.76327777 0 0 0 0 0
6.2760353 1.6632295 -0.7688005 0 0 0 0 0
6.3969545 1.6597288 -0.77439332 0 0 0 0 0
6.508225 1.6579233 -0.7817232 0 0 0 0 0
6.618526 1.6542058 -0.7884168 0 0 0 0 0
6.7395167 1.6367155 -0.79193932 0 0 0 0 0
8.5370388 0.7613818 -0.72213662 0 0 0 0 0
8.6007566 0.71378142 -0.70689368 0 0 0 0 0
8.5166893 0.84900039 -0.73025215 0 0 0 0 0
8.5572672 0.83078611 -0.7310729 0 0 0 0 0
8.656004 0.72648835 -0.74175358 0 0 0 0 0
8.6036968 0.80422395 -0.72764218 0 0 0 0 0
8.5205212 0.92296839 -0.7300055 0 0 0 0 0
8.6567421 0.76429331 -0.71816891 0 0 0 0 0
8.5627279 0.90459239 -0.7319749 0 0 0 0 0
8.6140995 0.86965853 -0.72732115 0 0 0 0 0
8.6730814 0.81932521 -0.71492684 0 0 0 0 0
8.7845879 0.69735652 -0.84256351 0 0 0 0 0
8.6934032 0.82735044 -0.72902036 0 0 0 0 0
8.797677 0.74966025 -0.83832359 0 0 0 0 0
8.7649136 0.83371824 -0.83046377 0 0 0 0 0
8.8288908 0.72824425 -0.83630562 0 0 0 0 0
8.8441477 0.87906271 -0.85330594 0 0 0 0 0
8.2251062 -0.84772038 -0.57940519 0 0 0 0 0
8.0877266 -0.93605202 -0.56682193 0 0 0 0 0
8.164465 -0.84779793 -0.63581079 0 0 0 0 0
8.018755 -0.94490266 -0.57112533 0 0 0 0 0
8.1315393 -0.84220296 -0.63454795 0 0 0 0 0
7.9700737 -0.94113743 -0.57105821 0 0 0 0 0
8.0653362 -0.85341287 -0.64329708 0 0 0 0 0
8.0648365 -0.85871798 -0.58928216 0 0 0 0 0
7.9241633 -0.9345203 -0.56920433 0 0 0 0 0
8.0119295 -0.85543215 -0.64737785 0 0 0 0 0
8.0112667 -0.8596788 -0.59200162 0 0 0 0 0
7.8647103 -0.93296498 -0.57017595 0 0 0 0 0
8.0438356 -0.8098498 -0.68340915 0 0 0 0 0
7.9754877 -0.84856015 -0.64605916 0 0 0 0 0
7.9806051 -0.84716499 -0.58850169 0 0 0 0 0
7.8184562 -0.92333931 -0.56923312 0 0 0 0 0
7.9327588 -0.84326291 -0.64647144 0 0 0 0 0
7.9265289 -0.84405881 -0.59077084 0 0 0 0 0
7.7599635 -0.91682029 -0.56954169 0 0 0 0 0
7.8681593 -0.84548014 -0.65247113 0 0 0 0 0
7.8710637 -0.84085274 -0.59328371 0 0 0 0 0
7.6981168 -0.91008258 -0.57115597 0 0 0 0 0
7.9565425 -0.78277785 -0.67522699 0 0 0 0 0
7.8262362 -0.83721226 -0.65215844 0 0 0 0 0
7.8100405 -0.83724749 -0.59677154 0 0 0 0 0
7.6334915 -0.90314531 -0.57325763 0 0 0 0 0
7.9203401 -0.77596772 -0.67530066 0 0 0 0 0
7.7723141 -0.83211303 -0.65448958 0 0 0 0 0
7.7511358 -0.83176786 -0.59925967 0 0 0 0 0
7.5532737 -0.89909607 -0.57791638 0 0 0 0 0
7.892457 -0.76365352 -0.67131323 0 0 0 0 0
7.7086744 -0.82936639 -0.65982634 0 0 0 0 0
7.6748366 -0.83011591 -0.6067279 0 0 0 0 0
7.4910746 -0.8862983 -0.57914221 0 0 0 0 0
7.8506966 -0.7564441 -0.67236185 0 0 0 0 0
7.6420937 -0.82536179 -0.66428906 0 0 0 0 0
7.6090617 -0.82314062 -0.61046576 0 0 0 0 0
7.4233174 -0.87310123 -0.58134317 0 0 0 0 0
7.8110547 -0.74736035 -0.67241061 0 0 0 0 0
7.5756664 -0.81936407 -0.66881394 0 0 0 0 0
7.5228739 -0.81973147 -0.61827874 0 0 0 0 0
7.3628931 -0.85542053 -0.58248031 0 0 0 0 0
7.7608805 -0.74054849 -0.67489076 0 0 0 0 0
7.5074291 -0.81125438 -0.67446244 0 0 0 0 0
7.4282722 -0.81671995 -0.6275233 0 0 0 0 0
7.2991924 -0.83652467 -0.58495402 0 0 0 0 0
7.7177219 -0.73018771 -0.67488372 0 0 0 0 0
7.4284201 -0.80535477 -0.68114996 0 0 0 0 0
7.3273749 -0.81223172 -0.6371994 0 0 0 0 0
7.2333641 -0.81645161 -0.58712816 0 0 0 0 0
7.6663895 -0.72028631 -0.67770052 0 0 0 0 0
7.3920016 -0.78438848 -0.67829859 0 0 0 0 0
7.2160997 -0.80802226 -0.64936876 0 0 0 0 0
7.1091809 -0.8102234 -0.59873742 0 0 0 0 0
7.6199541 -0.70871037 -0.67903 0 0 0 0 0
7.321054 -0.77203113 -0.68316627 0 0 0 0 0
7.0795059 -0.80600208 -0.66580135 0 0 0 0 0
6.9582901 -0.80608469 -0.61485362 0 0 0 0 0
7.5854321 -0.69191086 -0.67638534 0 0 0 0 0
7.2594032 -0.75530905 -0.68590862 0 0 0 0 0
6.9295154 -0.80399913 -0.68382221 0 0 0 0 0
6.7942328 -0.79897356 -0.63265115 0 0 0 0 0
7.5306602 -0.67973602 -0.67917728 0 0 0 0 0
7.2184725 -0.73103458 -0.68469959 0 0 0 0 0
6.8096189 -0.78908253 -0.69579738 0 0 0 0 0
6.6020784 -0.79385209 -0.65519953 0 0 0 0 0
7.1767278 -0.70667928 -0.68291628 0 0 0 0 0
6.7709255 -0.75394595 -0.69468564 0 0 0 0 0
6.3791161 -0.78647262 -0.68171751 0 0 0 0 0
7.1473751 -0.67722422 -0.67994338 0 0 0 0 0
6.2212663 -0.76074558 -0.69855493 0 0 0 0 0
7.0600619 -0.65968275 -0.68785989 0 0 0 0 0
6.1441298 -0.71683455 -0.70445389 0 0 0 0 0
7.3132935 -0.61305559 -0.68869275 0 0 0 0 0
6.9673448 -0.63974887 -0.69681352 0 0 0 0 0
6.6067204 -0.64910907 -0.70033157 0 0 0 0 0
6.1537714 -0.65920568 -0.69888967 0 0 0 0 0
7.2722092 -0.59077424 -0.68742174 0 0 0 0 0
6.9383006 -0.60630763 -0.6939646 0 0 0 0 0
6.5743637 -0.60745782 -0.69985437 0 0 0 0 0
6.1005373 -0.60906219 -0.7031036 0 0 0 0 0
7.1998363 -0.57132226 -0.69356823 0 0 0 0 0
6.8742204 -0.57740837 -0.69838452 0 0 0 0 0
6.5307374 -0.56700099 -0.70126498 0 0 0 0 0
6.103394 -0.55199265 -0.7001195 0 0 0 0 0
7.1575937 -0.54595143 -0.69263405 0 0 0 0 0
6.86166 -0.54016328 -0.69358397 0 0 0 0 0
6.485301 -0.5244323 -0.70379949 0 0 0 0 0
6.0527577 -0.50009859 -0.70611829 0 0 0 0 0
7.0973735 -0.52133781 -0.6961987 0 0 0 0 0
6.8006668 -0.5074774 -0.69764024 0 0 0 0 0
6.4421453 -0.48104772 -0.70669544 0 0 0 0 0
6.028409 -0.44410297 -0.70849019 0 0 0 0 0
7.0268521 -0.49600637 -0.70228744 0 0 0 0 0
6.7524099 -0.47270042 -0.69959617 0 0 0 0 0
6.4294457 -0.43386108 -0.70523351 0 0 0 0 0
6.0093603 -0.38755301 -0.71212858 0 0 0 0 0
6.9844198 -0.46563384 -0.70232624 0 0 0 0 0
6.7248826 -0.43342254 -0.69890004 0 0 0 0 0
6.3916674 -0.38892555 -0.70942694 0 0 0 0 0
5.9805079 -0.33130082 -0.71744221 0 0 0 0 0
6.9294052 -0.43535942 -0.70452774 0 0 0 0 0
6.6735029 -0.39543724 -0.70225435 0 0 0 0 0
6.3434248 -0.34221384 -0.71478319 0 0 0 0 0
5.9919233 -0.27400023 -0.71802187 0 0 0 0 0
6.8866291 -0.40197825 -0.7054776 0 0 0 0 0
6.6406569 -0.35582191 -0.70392549 0 0 0 0 0
6.331934 -0.2931768 -0.71534967 0 0 0 0 0
6.0064349 -0.2159647 -0.71953738 0 0 0 0 0
6.8650026 -0.36610827 -0.70289534 0 0 0 0 0
6.5967727 -0.31441143 -0.70757765 0 0 0 0 0
6.3235383 -0.24340475 -0.71685225 0 0 0 0 0
6.0475855 -0.15988767 -0.71781427 0 0 0 0 0
6.8153567 -0.33123147 -0.70509499 0 0 0 0 0
6.5599899 -0.27150699 -0.71007299 0 0 0 0 0
6.298315 -0.19442782 -0.72121751 0 0 0 0 0
6.0699444 -0.10448705 -0.72001582 0 0 0 0 0
6.755486 -0.29464027 -0.70984966 0 0 0 0 0
6.5702596 -0.22699496 -0.70525444 0 0 0 0 0
6.3203073 -0.14490174 -0.7196303 0 0 0 0 0
6.1050482 -0.05004672 -0.721416 0 0 0 0 0
6.7181554 -0.25566018 -0.71082866 0 0 0 0 0
6.5569935 -0.18284081 -0.70590967 0 0 0 0 0
6.3241591 -0.09507443 -0.72118056 0 0 0 0 0
6.0919418 0.0058754948 -0.73046702 0 0 0 0 0
6.6873512 -0.21516712 -0.71146911 0 0 0 0 0
6.5403738 -0.13846804 -0.70787048 0 0 0 0 0
6.327436 -0.045228131 -0.72354883 0 0 0 0 0
6.1875396 0.051894348 -0.72322911 0 0 0 0 0
6.6593261 -0.17487372 -0.71162194 0 0 0 0 0
6.54108 -0.094315633 -0.70611942 0 0 0 0 0
6.37256 0.00056491233 -0.71996641 0 0 0 0 0
6.2712917 0.096737757 -0.71869743 0 0 0 0 0
6.6308794 -0.13256824 -0.71265495 0 0 0 0 0
6.5122719 -0.048109714 -0.71169722 0 0 0 0 0
6.400281 0.04558181 -0.720065 0 0 0 0 0
6.3307719 0.14230064 -0.71909612 0 0 0 0 0
6.558785 -0.087149143 -0.72206187 0 0 0 0 0
6.5049577 -0.0024236443 -0.71283197 0 0 0 0 0
6.4302835 0.091414571 -0.72052497 0 0 0 0 0
6.4088216 0.18249875 -0.71677643 0 0 0 0 0
6.5620303 -0.043134522 -0.71843094 0 0 0 0 0
6.5223188 0.041422665 -0.71178985 0 0 0 0 0
6.4720626 0.13437477 -0.71954745 0 0 0 0 0
6.4430599 0.22686888 -0.72146946 0 0 0 0 0
6.5639715 -0.0010750251 -0.7163741 0 0 0 0 0
6.5404949 0.085188121 -0.71132201 0 0 0 0 0
6.5319128 0.17298573 -0.71670055 0 0 0 0 0
6.5409145 0.25960928 -0.71612591 0 0 0 0 0
6.5502076 0.044094656 -0.7178784 0 0 0 0 0
6.5510716 0.12847514 -0.71285987 0 0 0 0 0
6.5530124 0.21638493 -0.72074044 0 0 0 0 0
6.6159625 0.29396594 -0.71550012 0 0 0 0 0
6.5482121 0.089443251 -0.71664584 0 0 0 0 0
6.5589466 0.17295839 -0.71491629 0 0 0 0 0
6.6044493 0.25459829 -0.71932501 0 0 0 0 0
6.6668153 0.33003858 -0.71983588 0 0 0 0 0
6.5466185 0.1336716 -0.71816695 0 0 0 0 0
6.5850472 0.21508546 -0.7151655 0 0 0 0 0
6.6642313 0.28916121 -0.71774668 0 0 0 0 0
6.7557936 0.35640213 -0.71573782 0 0 0 0 0
6.5554032 0.17817873 -0.71719486 0 0 0 0 0
6.6229243 0.25433996 -0.7139771 0 0 0 0 0
6.7205057 0.32194966 -0.71741182 0 0 0 0 0
6.8269486 0.38400158 -0.71620035 0 0 0 0 0
6.5497184 0.22370312 -0.71947831 0 0 0 0 0
6.6716862 0.28980622 -0.71074581 0 0 0 0 0
6.7663159 0.35651433 -0.71823972 0 0 0 0 0
6.897058 0.40869224 -0.71599579 0 0 0 0 0
6.5670023 0.26655287 -0.71840513 0 0 0 0 0
6.6931291 0.33019683 -0.71387458 0 0 0 0 0
6.8217845 0.38633209 -0.71862978 0 0 0 0 0
6.9385366 0.43940356 -0.72242606 0 0 0 0 0
6.6128993 0.30427372 -0.71433097 0 0 0 0 0
6.7419763 0.36360815 -0.71197367 0 0 0 0 0
6.871695 0.41654924 -0.71999478 0 0 0 0 0
6.9690533 0.47290662 -0.73086816 0 0 0 0 0
6.636642 0.34458837 -0.71418744 0 0 0 0 0
6.762691 0.4020246 -0.7158584 0 0 0 0 0
6.9324903 0.44297805 -0.7193169 0 0 0 0 0
6.6329036 0.39088577 -0.71904296 0 0 0 0 0
6.8212733 0.43168566 -0.71355057 0 0 0 0 0
6.9468226 0.47971502 -0.72853547 0 0 0 0 0
6.661552 0.42982355 -0.71871156 0 0 0 0 0
6.8468165 0.4677287 -0.71721649 0 0 0 0 0
6.8706355 0.5038287 -0.72333652 0 0 0 0 0
6.9215412 0.53201479 -0.72300357 0 0 0 0 0
7.1129045 0.54803646 -0.73241371 0 0 0 0 0
7.3314352 0.54431421 -0.72836751 0 0 0 0 0
6.7415094 0.54688853 -0.72450584 0 0 0 0 0
6.9643507 0.56073791 -0.72552526 0 0 0 0 0
7.1942778 0.5589354 -0.72822005 0 0 0 0 0
7.4103823 0.54935271 -0.72504961 0 0 0 0 0
6.7808704 0.58093679 -0.72570336 0 0 0 0 0
6.9221296 0.66930223 -0.72756505 0 0 0 0 0
7.5466843 0.62894398 -0.73096633 0 0 0 0 0
7.6312513 0.62264502 -0.72330397 0 0 0 0 0
7.8694329 0.55841053 -0.7124669 0 0 0 0 0
7.6823316 0.62868357 -0.72482979 0 0 0 0 0
7.9206257 0.55845076 -0.71298862 0 0 0 0 0
